x,y,z,intensity,return_num,classification
282000.14,5660000.87,31.71,35170,1,2
282000.14,5660001.25,31.75,37092,1,2
282000.14,5660000.0600000005,31.75,27764,1,20
282000.14,5660000.49,31.76,35913,1,20
282000.14,5660001.62,31.740000000000002,34952,1,20
282000.14,5660002.03,31.740000000000002,36240,1,20
282000.14,5660002.44,31.720000000000002,31631,1,2
282000.14,5660002.8100000005,31.71,34296,1,2
282000.14,5660003.18,31.75,33379,1,20
282000.14,5660003.58,31.720000000000002,32527,1,2
282000.14,5660003.94,31.73,30735,1,2
282000.14,5660004.33,31.73,31718,1,2
282000.14,5660004.74,31.76,32767,1,20
282000.16000000003,5660000.07,31.69,28420,1,2
282000.16000000003,5660000.37,31.73,36437,1,2
282000.57,5660000.15,31.7,33422,1,2
282001.01,5660000.28,31.71,33051,1,2
282001.37,5660000.04,31.71,32090,1,2
282001.37,5660000.36,31.71,26629,1,2
282001.67,5660000.17,31.7,30146,1,2
282000.16000000003,5660000.7,31.71,36808,1,2
282000.57,5660000.46,31.720000000000002,36983,1,2
282000.57,5660000.78,31.69,33859,1,2
282000.16000000003,5660001.03,31.740000000000002,37704,1,2
282000.16000000003,5660001.34,31.740000000000002,37158,1,2
282000.57,5660001.12,31.720000000000002,35869,1,2
282001.0,5660000.62,31.71,33466,1,2
282001.67,5660000.48,31.720000000000002,28748,1,2
282001.37,5660000.68,31.68,28988,1,2
282001.67,5660000.8,31.71,31631,1,2
282001.0,5660000.93,31.720000000000002,31303,1,2
282001.0,5660001.23,31.71,32527,1,2
282001.37,5660001.02,31.720000000000002,25121,1,2
282001.37,5660001.33,31.71,29752,1,2
282001.67,5660001.14,31.69,32614,1,2
282001.99,5660000.08,31.71,30779,1,2
282002.38,5660000.28,31.68,29468,1,2
282002.73,5660000.2,31.71,29075,1,2
282003.04,5660000.28,31.68,26760,1,2
282003.4,5660000.11,31.73,27655,1,2
282001.99,5660000.38,31.69,33029,1,2
282001.99,5660000.7,31.71,32002,1,2
282002.38,5660000.66,31.68,27743,1,2
282001.99,5660001.04,31.7,28136,1,2
282001.99,5660001.37,31.7,27044,1,2
282002.38,5660001.3100000005,31.66,20381,1,2
282002.73,5660001.12,31.7,28267,1,2
282002.73,5660000.52,31.67,25951,1,2
282003.04,5660000.57,31.68,28354,1,2
282003.39,5660000.44,31.71,26301,1,2
282003.39,5660000.77,31.71,23527,1,2
282003.04,5660000.89,31.7,31697,1,2
282003.39,5660001.09,31.7,25777,1,2
282002.38,5660000.93,31.8,37027,1,20
282002.73,5660000.84,31.740000000000002,26672,1,20
282003.04,5660001.22,31.73,26170,1,20
282003.78,5660000.11,31.68,21145,1,2
282004.37,5660000.1,31.67,22391,1,2
282004.74,5660000.11,31.720000000000002,31172,1,2
282003.78,5660000.46,31.67,20796,1,2
282004.09,5660000.59,31.720000000000002,20774,1,2
282004.37,5660000.39,31.69,21866,1,2
282004.37,5660000.73,31.7,27153,1,2
282004.09,5660000.9,31.71,22216,1,2
282003.78,5660001.1,31.71,23898,1,2
282004.09,5660001.22,31.7,19201,1,2
282005.17,5660000.6,31.71,40041,1,2
282004.09,5660000.27,31.73,25034,1,2
282005.54,5660000.19,31.75,38185,1,2
282003.78,5660000.76,31.740000000000002,25973,1,2
282004.74,5660000.41,31.740000000000002,43799,1,2
282004.74,5660000.73,31.740000000000002,41265,1,2
282004.37,5660001.1,31.720000000000002,31697,1,2
282004.74,5660001.07,31.740000000000002,42838,1,2
282005.18,5660000.27,31.740000000000002,41461,1,2
282005.54,5660000.5600000005,31.75,31413,1,2
282005.17,5660000.91,31.720000000000002,39932,1,2
282005.17,5660001.23,31.75,41461,1,2
282005.54,5660000.87,31.740000000000002,37027,1,2
282005.53,5660001.21,31.720000000000002,35476,1,2
282000.16000000003,5660001.63,31.73,35891,1,2
282000.16000000003,5660001.94,31.71,36240,1,2
282000.56,5660001.46,31.71,35170,1,2
282000.56,5660001.79,31.7,34187,1,2
282000.16000000003,5660002.25,31.740000000000002,36481,1,2
282000.56,5660002.13,31.73,37398,1,2
282001.0,5660001.59,31.7,31718,1,2
282001.67,5660001.45,31.7,29796,1,2
282001.37,5660001.7,31.7,32330,1,2
282001.67,5660001.76,31.68,28223,1,2
282001.0,5660001.92,31.71,28507,1,2
282001.0,5660002.22,31.7,27065,1,2
282001.37,5660001.98,31.73,31150,1,2
282001.67,5660002.11,31.71,29971,1,2
282000.16000000003,5660002.6,31.720000000000002,35716,1,2
282000.16000000003,5660002.88,31.73,35519,1,20
282000.56,5660002.47,31.720000000000002,31784,1,2
282000.56,5660002.78,31.740000000000002,30626,1,2
282000.16000000003,5660003.2,31.720000000000002,33510,1,2
282000.56,5660003.1,31.720000000000002,33226,1,2
282000.56,5660003.44,31.720000000000002,32221,1,2
282001.0,5660002.52,31.71,30692,1,2
282001.0,5660002.9,31.720000000000002,30124,1,2
282001.37,5660002.67,31.73,30386,1,2
282001.67,5660002.44,31.720000000000002,27109,1,2
282001.67,5660002.74,31.67,24706,1,2
282001.0,5660003.18,31.7,32046,1,2
282001.37,5660002.96,31.740000000000002,30320,1,2
282001.67,5660003.1,31.720000000000002,18393,1,20
282001.37,5660003.3,31.650000000000002,29032,1,2
282001.37,5660002.32,31.75,31893,1,2
282000.16000000003,5660003.54,31.71,32898,1,2
282000.16000000003,5660003.82,31.720000000000002,31063,1,2
282000.56,5660003.72,31.71,31959,1,2
282000.16000000003,5660004.15,31.720000000000002,31981,1,2
282000.16000000003,5660004.5,31.71,30495,1,2
282000.56,5660004.04,31.73,32833,1,2
282000.56,5660004.36,31.720000000000002,36000,1,2
282001.0,5660003.51,31.71,28857,1,2
282001.0,5660003.87,31.7,29687,1,2
282001.67,5660003.45,31.66,21517,1,2
282001.66000000003,5660003.75,31.66,23112,1,2
282001.0,5660004.19,31.73,31631,1,2
282001.36,5660003.97,31.68,23920,1,2
282001.36,5660004.29,31.67,23723,1,2
282001.66000000003,5660004.4,31.71,24728,1,2
282000.15,5660004.82,31.720000000000002,32658,1,2
282000.56,5660004.69,31.720000000000002,33357,1,2
282000.56,5660004.99,31.7,31500,1,2
282000.15,5660005.11,31.71,34252,1,2
282000.15,5660005.44,31.71,32483,1,2
282000.56,5660005.3100000005,31.720000000000002,32046,1,2
282001.0,5660004.87,31.68,29731,1,2
282001.36,5660004.61,31.67,19922,1,2
282001.36,5660004.91,31.720000000000002,24247,1,20
282001.66000000003,5660004.75,31.71,28922,1,20
282000.99,5660005.23,31.720000000000002,26781,1,2
282001.36,5660005.28,31.7,25099,1,2
282001.37,5660003.6,31.76,24815,1,20
282001.66000000003,5660004.05,31.73,24204,1,20
282001.0,5660004.51,31.75,30779,1,2
282001.66000000003,5660005.38,31.740000000000002,20294,1,20
282001.99,5660001.7,31.7,28660,1,2
282002.73,5660001.46,31.720000000000002,29403,1,2
282002.73,5660001.8,31.68,25711,1,2
282001.99,5660002.04,31.69,24946,1,2
282001.99,5660002.32,31.7,21364,1,2
282002.38,5660001.95,31.67,27568,1,2
282002.37,5660002.24,31.7,27087,1,2
282002.73,5660002.13,31.68,22696,1,2
282003.04,5660001.5,31.67,19704,1,2
282003.04,5660001.85,31.7,22915,1,2
282003.39,5660001.37,31.69,18852,1,2
282003.39,5660001.69,31.69,19158,1,2
282003.04,5660002.19,31.68,21145,1,2
282003.39,5660002.03,31.66,21342,1,2
282003.39,5660002.33,31.66,18786,1,2
282003.77,5660002.11,31.67,20184,1,2
282001.99,5660002.65,31.69,23243,1,2
282002.37,5660002.57,31.71,25252,1,2
282002.73,5660002.41,31.73,18502,1,20
282002.37,5660002.89,31.69,26934,1,2
282002.73,5660002.74,31.67,24641,1,2
282001.99,5660002.96,31.73,24772,1,20
282001.99,5660003.28,31.68,22369,1,2
282002.37,5660003.22,31.650000000000002,29206,1,2
282003.04,5660002.49,31.720000000000002,27175,1,2
282003.04,5660002.79,31.69,21888,1,2
282003.39,5660002.63,31.71,21255,1,2
282003.39,5660002.96,31.7,28529,1,2
282003.39,5660003.28,31.650000000000002,16536,1,2
282002.38,5660001.62,31.740000000000002,24925,1,20
282003.78,5660001.44,31.740000000000002,25536,1,20
282002.73,5660003.08,31.76,21910,1,20
282003.77,5660002.44,31.720000000000002,28464,1,2
282003.77,5660002.8,31.73,32723,1,2
282003.04,5660003.13,31.73,22041,1,20
282003.77,5660003.12,31.720000000000002,31282,1,2
282004.09,5660001.59,31.66,22150,1,2
282004.37,5660001.4,31.720000000000002,38469,1,2
282004.09,5660001.9,31.7,34078,1,2
282005.53,5660001.53,31.71,36939,1,2
282004.37,5660002.39,31.71,39255,1,2
282004.37,5660003.02,31.71,36808,1,2
282004.74,5660001.38,31.740000000000002,40325,1,2
282004.37,5660001.69,31.75,41571,1,2
282004.74,5660001.68,31.73,43100,1,2
282004.09,5660002.19,31.740000000000002,42969,1,2
282004.74,5660002.03,31.77,38469,1,2
282004.37,5660002.07,31.740000000000002,42619,1,2
282005.17,5660001.59,31.740000000000002,39452,1,2
282005.17,5660001.89,31.73,40500,1,2
282005.17,5660002.2,31.720000000000002,40304,1,2
282005.53,5660001.88,31.73,37988,1,2
282005.84,5660001.98,31.73,41374,1,2
282005.53,5660002.16,31.75,41767,1,2
282004.09,5660002.51,31.75,42838,1,2
282004.74,5660002.37,31.75,43012,1,2
282004.37,5660002.69,31.720000000000002,42182,1,2
282004.74,5660002.66,31.75,43864,1,2
282004.08,5660002.87,31.740000000000002,44257,1,2
282004.08,5660003.16,31.740000000000002,40850,1,2
282004.74,5660003.03,31.720000000000002,43034,1,2
282005.17,5660002.54,31.740000000000002,41549,1,2
282005.53,5660002.47,31.73,43034,1,2
282005.84,5660002.28,31.75,43253,1,2
282005.53,5660002.78,31.720000000000002,43821,1,2
282005.84,5660002.5600000005,31.75,45568,1,2
282005.17,5660002.88,31.73,44105,1,2
282005.17,5660003.14,31.73,45109,1,2
282005.84,5660002.88,31.78,46267,1,2
282005.53,5660003.12,31.75,45481,1,2
282005.83,5660003.27,31.810000000000002,48736,1,2
282001.98,5660003.61,31.69,23439,1,2
282001.98,5660003.9,31.720000000000002,29578,1,2
282002.37,5660003.54,31.71,22325,1,2
282002.73,5660003.41,31.66,19289,1,2
282002.37,5660003.9,31.720000000000002,22391,1,2
282002.72000000003,5660003.74,31.720000000000002,24837,1,2
282001.98,5660004.25,31.73,25908,1,2
282002.72000000003,5660004.1,31.66,16689,1,2
282002.37,5660004.21,31.69,22871,1,2
282002.72000000003,5660004.4,31.720000000000002,20075,1,2
282003.04,5660003.46,31.66,24095,1,2
282003.04,5660003.74,31.71,23789,1,2
282003.39,5660003.5600000005,31.71,24488,1,20
282003.77,5660003.4,31.720000000000002,39670,1,2
282003.04,5660004.11,31.68,25864,1,2
282003.39,5660003.9,31.68,25951,1,2
282001.98,5660004.61,31.69,20709,1,2
282002.37,5660004.5,31.650000000000002,17170,1,2
282002.37,5660005.17,31.71,17213,1,2
282002.72000000003,5660005.05,31.64,15772,1,2
282002.72000000003,5660005.38,31.67,17759,1,2
282003.03,5660004.71,31.71,21517,1,2
282003.39,5660004.85,31.71,39888,1,2
282003.77,5660004.66,31.720000000000002,35869,1,2
282003.03,5660005.04,31.720000000000002,32505,1,2
282003.03,5660005.38,31.71,39867,1,2
282003.77,5660003.72,31.740000000000002,41155,1,2
282003.03,5660004.39,31.76,21145,1,20
282003.77,5660004.02,31.77,42160,1,2
282003.39,5660004.25,31.740000000000002,31740,1,2
282003.77,5660004.33,31.740000000000002,40369,1,2
282001.98,5660005.25,31.76,15946,1,20
282003.39,5660004.55,31.75,39473,1,2
282003.38,5660005.16,31.73,40762,1,2
282003.77,5660004.99,31.75,43078,1,2
282003.77,5660005.28,31.75,41702,1,2
282004.74,5660004.01,31.7,40020,1,2
282004.08,5660004.5,31.71,37180,1,2
282004.08,5660003.49,31.73,41112,1,2
282004.08,5660003.85,31.720000000000002,41155,1,2
282004.36,5660003.68,31.740000000000002,38971,1,2
282004.36,5660003.34,31.75,42117,1,2
282004.74,5660003.36,31.740000000000002,42160,1,2
282004.74,5660003.68,31.73,41068,1,2
282004.36,5660003.99,31.720000000000002,37857,1,2
282004.08,5660004.18,31.75,37202,1,2
282004.36,5660004.35,31.740000000000002,42597,1,2
282005.17,5660003.48,31.75,44323,1,2
282005.17,5660003.8,31.740000000000002,43078,1,2
282005.53,5660003.44,31.76,45175,1,2
282005.53,5660003.79,31.76,47993,1,2
282005.83,5660003.57,31.77,46180,1,2
282005.17,5660004.16,31.720000000000002,43165,1,2
282005.83,5660003.92,31.76,46398,1,2
282005.53,5660004.11,31.78,47578,1,2
282005.83,5660004.22,31.810000000000002,48386,1,2
282004.08,5660004.84,31.76,42335,1,2
282004.36,5660004.64,31.73,39998,1,2
282004.74,5660004.35,31.740000000000002,39845,1,2
282004.73,5660004.68,31.740000000000002,42969,1,2
282004.36,5660004.96,31.740000000000002,43318,1,2
282004.08,5660005.19,31.740000000000002,43384,1,2
282004.36,5660005.29,31.740000000000002,43930,1,2
282004.73,5660004.97,31.740000000000002,38774,1,2
282004.73,5660005.32,31.740000000000002,45503,1,2
282005.17,5660004.45,31.78,46376,1,2
282005.16000000003,5660004.79,31.75,46923,1,2
282005.53,5660004.4,31.77,48670,1,2
282005.83,5660004.5600000005,31.810000000000002,47927,1,2
282005.53,5660004.73,31.76,47097,1,2
282005.16000000003,5660005.13,31.77,46944,1,2
282005.53,5660005.0600000005,31.78,47054,1,2
282005.83,5660004.85,31.78,46988,1,2
282005.83,5660005.17,31.78,47250,1,2
282000.15,5660005.78,31.71,33248,1,2
282000.56,5660005.64,31.720000000000002,31762,1,2
282000.56,5660005.93,31.64,29381,1,2
282000.15,5660006.0600000005,31.73,31107,1,2
282000.15,5660006.41,31.720000000000002,34602,1,2
282000.55,5660006.26,31.68,25798,1,2
282000.99,5660005.51,31.720000000000002,22128,1,2
282000.99,5660005.8100000005,31.68,21429,1,2
282001.36,5660005.89,31.7,24663,1,2
282001.36,5660005.57,31.7,24881,1,2
282001.66000000003,5660005.71,31.68,25012,1,2
282000.99,5660006.14,31.68,25558,1,2
282001.36,5660006.25,31.720000000000002,25558,1,2
282000.99,5660006.43,31.71,29403,1,2
282001.66000000003,5660006.02,31.69,24794,1,2
282000.15,5660006.75,31.71,34012,1,2
282000.55,5660006.6,31.71,25798,1,2
282000.55,5660006.91,31.73,23112,1,2
282000.15,5660007.37,31.7,32439,1,2
282000.55,5660007.21,31.69,26760,1,2
282000.55,5660007.54,31.71,29709,1,2
282001.36,5660006.58,31.650000000000002,19638,1,2
282001.36,5660006.91,31.66,25165,1,2
282001.66000000003,5660006.72,31.7,24968,1,2
282001.66000000003,5660006.98,31.720000000000002,27896,1,20
282000.99,5660007.08,31.7,27175,1,2
282001.36,5660007.27,31.67,25121,1,2
282000.99,5660007.43,31.63,26301,1,2
282001.66000000003,5660007.34,31.64,16798,1,2
282001.66000000003,5660006.34,31.75,24073,1,2
282000.99,5660006.73,31.75,30801,1,2
282000.15,5660007.73,31.71,33051,1,2
282000.15,5660008.07,31.67,28245,1,2
282000.55,5660007.88,31.71,28005,1,2
282000.15,5660008.38,31.68,28682,1,2
282000.55,5660008.18,31.71,25558,1,2
282000.55,5660008.51,31.71,31566,1,2
282000.99,5660007.72,31.67,19813,1,2
282001.36,5660007.61,31.68,24859,1,2
282000.99,5660008.02,31.62,19594,1,2
282001.36,5660007.89,31.7,24837,1,2
282001.66000000003,5660007.68,31.66,19638,1,2
282001.66000000003,5660008.0,31.650000000000002,23811,1,2
282001.36,5660008.21,31.71,27546,1,2
282000.99,5660008.34,31.720000000000002,32133,1,2
282001.35000000003,5660008.54,31.69,29468,1,2
282001.66000000003,5660008.3100000005,31.7,30036,1,2
282000.15,5660008.7,31.7,34252,1,2
282000.15,5660009.0600000005,31.720000000000002,36306,1,2
282000.55,5660008.82,31.720000000000002,30561,1,2
282000.15,5660009.34,31.7,33051,1,2
282000.55,5660009.14,31.7,30430,1,2
282000.55,5660009.45,31.71,35432,1,2
282000.99,5660008.68,31.73,31522,1,2
282000.99,5660008.99,31.71,28376,1,2
282001.35000000003,5660008.84,31.68,28442,1,2
282001.65,5660008.68,31.720000000000002,31107,1,2
282001.65,5660009.01,31.7,34252,1,2
282000.99,5660009.3100000005,31.720000000000002,34034,1,2
282001.35000000003,5660009.13,31.69,24641,1,2
282001.35000000003,5660009.48,31.71,29490,1,2
282001.65,5660009.32,31.720000000000002,37682,1,2
282001.97000000003,5660008.86,31.79,45044,1,20
282001.97000000003,5660009.15,31.740000000000002,41308,1,2
282001.97000000003,5660009.48,31.740000000000002,41745,1,2
282001.98,5660005.61,31.7,25820,1,2
282002.37,5660005.46,31.71,21735,1,2
282001.98,5660005.91,31.7,25842,1,2
282002.37,5660005.79,31.66,19070,1,2
282002.72000000003,5660005.66,31.68,29381,1,2
282001.98,5660006.23,31.7,22980,1,2
282002.37,5660006.14,31.69,18546,1,2
282002.72000000003,5660005.99,31.720000000000002,30932,1,2
282002.72000000003,5660006.32,31.720000000000002,34384,1,2
282003.03,5660006.37,31.71,36743,1,2
282001.98,5660006.6,31.67,20162,1,2
282001.98,5660006.91,31.69,20250,1,2
282002.36,5660006.76,31.69,23090,1,2
282001.98,5660007.21,31.71,18568,1,2
282002.36,5660007.1,31.69,31129,1,2
282002.36,5660007.46,31.7,28311,1,2
282002.72000000003,5660007.3,31.71,33466,1,2
282003.38,5660006.78,31.720000000000002,37529,1,2
282003.38,5660007.46,31.7,39910,1,2
282002.37,5660006.45,31.75,23177,1,20
282003.38,5660005.51,31.740000000000002,41898,1,2
282003.03,5660005.73,31.75,41134,1,2
282003.38,5660005.8,31.740000000000002,41789,1,2
282003.77,5660005.59,31.720000000000002,43821,1,2
282003.77,5660005.91,31.73,43427,1,2
282003.03,5660006.05,31.73,40041,1,2
282003.38,5660006.13,31.73,42750,1,2
282003.77,5660006.26,31.76,43056,1,2
282002.72000000003,5660006.68,31.740000000000002,41374,1,2
282002.72000000003,5660006.98,31.73,35301,1,2
282003.38,5660006.48,31.740000000000002,43296,1,2
282003.03,5660006.72,31.76,42357,1,2
282003.76,5660006.57,31.73,36568,1,2
282003.76,5660006.88,31.720000000000002,40893,1,2
282003.03,5660007.01,31.740000000000002,42095,1,2
282003.38,5660007.09,31.720000000000002,41287,1,2
282003.03,5660007.3,31.78,42728,1,20
282003.76,5660007.23,31.720000000000002,41680,1,2
282004.08,5660005.51,31.75,43646,1,2
282004.36,5660005.64,31.740000000000002,41898,1,2
282004.08,5660005.8,31.740000000000002,42182,1,2
282004.73,5660005.63,31.77,45284,1,2
282004.08,5660006.11,31.720000000000002,40041,1,2
282004.36,5660005.95,31.720000000000002,44257,1,2
282004.36,5660006.28,31.75,45175,1,2
282004.73,5660005.95,31.76,45109,1,2
282004.73,5660006.29,31.740000000000002,44957,1,2
282005.16000000003,5660005.46,31.75,47163,1,2
282005.16000000003,5660005.78,31.78,47097,1,2
282005.52,5660005.37,31.78,47709,1,2
282005.83,5660005.5,31.8,47622,1,2
282005.52,5660005.68,31.76,47403,1,2
282005.83,5660005.8100000005,31.810000000000002,48670,1,2
282005.16000000003,5660006.11,31.75,45590,1,2
282005.52,5660006.0,31.830000000000002,49173,1,2
282005.52,5660006.33,31.85,47403,1,2
282005.83,5660006.15,31.8,46726,1,2
282004.08,5660006.44,31.73,42685,1,2
282004.36,5660006.64,31.740000000000002,42554,1,2
282004.08,5660006.73,31.76,45765,1,2
282004.73,5660006.64,31.740000000000002,45634,1,2
282004.08,5660007.0600000005,31.73,40478,1,2
282004.36,5660006.97,31.76,43143,1,2
282004.07,5660007.39,31.740000000000002,43274,1,2
282004.36,5660007.3,31.73,43274,1,2
282004.73,5660006.92,31.76,46639,1,2
282004.73,5660007.26,31.76,47556,1,2
282005.16000000003,5660006.44,31.79,48321,1,2
282005.16000000003,5660006.76,31.78,47491,1,2
282005.83,5660006.51,31.8,47163,1,2
282005.52,5660006.66,31.79,48648,1,2
282005.83,5660006.8100000005,31.76,47600,1,2
282005.16000000003,5660007.09,31.8,47381,1,2
282005.16000000003,5660007.41,31.830000000000002,49216,1,2
282005.52,5660006.99,31.78,47054,1,2
282005.83,5660007.1,31.78,47185,1,2
282005.52,5660007.32,31.810000000000002,48758,1,2
282001.98,5660007.53,31.7,24728,1,2
282002.36,5660007.75,31.720000000000002,34624,1,2
282001.98,5660007.86,31.71,27044,1,2
282003.03,5660007.99,31.720000000000002,40740,1,2
282002.72000000003,5660007.63,31.75,40369,1,2
282002.72000000003,5660007.93,31.740000000000002,43799,1,2
282001.97000000003,5660008.19,31.740000000000002,37879,1,2
282002.36,5660008.1,31.73,40959,1,2
282001.97000000003,5660008.5,31.740000000000002,40806,1,2
282002.36,5660008.42,31.77,44935,1,2
282002.71,5660008.24,31.740000000000002,41855,1,2
282003.03,5660007.63,31.740000000000002,39233,1,2
282003.38,5660007.78,31.720000000000002,40391,1,2
282003.76,5660007.53,31.740000000000002,41439,1,2
282003.76,5660007.83,31.740000000000002,44126,1,2
282003.38,5660008.11,31.73,45088,1,2
282003.03,5660008.3100000005,31.73,43799,1,2
282003.38,5660008.41,31.76,44782,1,2
282003.76,5660008.17,31.740000000000002,43427,1,2
282002.36,5660008.75,31.75,45066,1,2
282002.71,5660008.59,31.75,44760,1,2
282002.71,5660008.9,31.740000000000002,41265,1,2
282002.36,5660009.07,31.75,44825,1,2
282002.36,5660009.4,31.76,46180,1,2
282002.71,5660009.21,31.76,42029,1,2
282003.03,5660008.65,31.740000000000002,42422,1,2
282003.02,5660008.98,31.740000000000002,43493,1,2
282003.38,5660008.76,31.77,47731,1,2
282003.76,5660008.52,31.78,46791,1,2
282003.76,5660008.78,31.79,47075,1,2
282003.02,5660009.26,31.75,46879,1,2
282003.38,5660009.07,31.75,46005,1,2
282003.37,5660009.38,31.740000000000002,45677,1,2
282003.76,5660009.1,31.740000000000002,45393,1,2
282003.76,5660009.47,31.75,46420,1,2
282004.07,5660007.7,31.740000000000002,42444,1,2
282004.36,5660007.63,31.73,42685,1,2
282004.35000000003,5660007.94,31.75,45481,1,2
282004.73,5660007.59,31.79,48080,1,2
282004.73,5660007.9,31.78,47425,1,2
282004.07,5660007.99,31.740000000000002,42816,1,2
282004.07,5660008.3100000005,31.75,44978,1,2
282004.35000000003,5660008.22,31.75,48015,1,2
282004.73,5660008.22,31.8,47622,1,2
282005.16000000003,5660007.71,31.79,47927,1,2
282005.52,5660007.67,31.78,46486,1,2
282005.83,5660007.46,31.77,45896,1,2
282005.83,5660007.78,31.740000000000002,46813,1,2
282005.16000000003,5660008.07,31.76,46529,1,2
282005.52,5660008.01,31.75,46923,1,2
282005.16000000003,5660008.4,31.78,47294,1,2
282005.52,5660008.32,31.76,46289,1,2
282005.82,5660008.08,31.73,43952,1,2
282005.82,5660008.41,31.740000000000002,45153,1,2
282004.07,5660008.65,31.75,46136,1,2
282004.35000000003,5660008.54,31.740000000000002,47556,1,2
282004.07,5660008.96,31.740000000000002,45306,1,2
282004.35000000003,5660008.86,31.78,47796,1,2
282004.73,5660008.57,31.78,47775,1,2
282004.72000000003,5660008.93,31.79,48146,1,2
282004.35000000003,5660009.18,31.8,49435,1,2
282004.07,5660009.27,31.79,47512,1,2
282004.35000000003,5660009.46,31.84,48670,1,2
282004.72000000003,5660009.25,31.75,47469,1,2
282005.52,5660008.68,31.75,46136,1,2
282005.16000000003,5660008.72,31.75,46486,1,2
282005.82,5660008.73,31.75,47491,1,2
282005.16000000003,5660009.02,31.740000000000002,46726,1,2
282005.52,5660008.99,31.740000000000002,44957,1,2
282005.15,5660009.37,31.76,46966,1,2
282005.52,5660009.3100000005,31.75,46202,1,2
282005.82,5660009.07,31.75,46639,1,2
282005.82,5660009.39,31.75,43821,1,2
282000.14,5660009.64,31.71,33313,1,2
282000.14,5660009.97,31.720000000000002,34296,1,2
282000.55,5660009.82,31.720000000000002,39757,1,2
282000.98,5660009.92,31.720000000000002,33794,1,2
282000.14,5660010.32,31.720000000000002,37879,1,2
282000.55,5660010.15,31.73,35148,1,2
282000.98,5660010.25,31.73,33291,1,2
282000.55,5660010.47,31.720000000000002,33466,1,2
282000.98,5660010.59,31.720000000000002,35170,1,2
282000.99,5660009.65,31.7,32417,1,2
282000.14,5660010.98,31.720000000000002,34777,1,2
282000.54,5660010.78,31.7,33553,1,2
282000.14,5660011.3,31.73,33575,1,2
282000.14,5660011.59,31.720000000000002,33903,1,2
282000.54,5660011.44,31.73,40784,1,2
282001.35000000003,5660009.8,31.73,34733,1,2
282001.35000000003,5660010.07,31.76,41134,1,2
282001.65,5660009.66,31.75,43253,1,2
282001.97000000003,5660009.8,31.75,44126,1,2
282001.65,5660010.0,31.75,43995,1,2
282001.35000000003,5660010.39,31.75,42663,1,2
282001.65,5660010.29,31.75,42728,1,2
282001.97000000003,5660010.14,31.76,43143,1,2
282001.97000000003,5660010.47,31.76,42379,1,2
282000.54,5660011.14,31.76,39277,1,2
282000.98,5660010.94,31.75,40391,1,2
282000.98,5660011.21,31.740000000000002,43930,1,2
282000.98,5660011.52,31.8,47687,1,2
282001.35000000003,5660010.73,31.77,46071,1,2
282001.35000000003,5660011.04,31.75,44301,1,2
282001.97000000003,5660010.8,31.76,42575,1,2
282001.65,5660010.9,31.740000000000002,44389,1,2
282001.35000000003,5660011.38,31.75,42685,1,2
282001.65,5660011.24,31.740000000000002,41571,1,2
282001.97000000003,5660011.16,31.75,43253,1,2
282001.65,5660011.55,31.73,42444,1,2
282001.97000000003,5660011.49,31.740000000000002,42444,1,2
282000.14,5660011.92,31.73,34689,1,2
282000.54,5660012.08,31.73,37813,1,2
282000.54,5660011.74,31.720000000000002,37245,1,2
282000.14,5660012.27,31.68,33684,1,2
282000.98,5660012.54,31.720000000000002,40216,1,2
282001.65,5660011.84,31.720000000000002,42029,1,2
282001.65,5660012.5,31.720000000000002,36546,1,2
282000.14,5660012.87,31.73,38512,1,2
282000.98,5660013.2,31.720000000000002,36022,1,2
282000.98,5660013.52,31.73,40740,1,2
282001.65,5660012.78,31.68,30146,1,2
282001.65,5660013.16,31.7,35367,1,2
282001.96,5660013.09,31.71,35519,1,2
282001.34,5660013.61,31.720000000000002,33859,1,2
282001.64,5660013.49,31.7,33335,1,2
282000.98,5660011.89,31.78,44978,1,2
282000.54,5660012.41,31.76,43668,1,20
282000.98,5660012.21,31.78,43908,1,2
282001.35000000003,5660011.69,31.78,43100,1,2
282001.35000000003,5660011.99,31.76,46071,1,2
282001.97000000003,5660011.82,31.73,39189,1,2
282001.35000000003,5660012.3100000005,31.740000000000002,42029,1,2
282001.35000000003,5660012.64,31.76,37573,1,2
282001.65,5660012.2,31.73,38731,1,2
282001.97000000003,5660012.16,31.740000000000002,39299,1,2
282001.97000000003,5660012.46,31.740000000000002,37901,1,2
282000.54,5660012.71,31.79,45546,1,20
282000.14,5660013.2,31.75,42706,1,2
282000.54,5660013.08,31.740000000000002,43231,1,2
282000.98,5660012.91,31.73,39539,1,2
282000.54,5660013.38,31.82,46027,1,20
282000.14,5660013.53,31.77,42160,1,2
282000.54,5660013.69,31.75,45524,1,2
282001.35000000003,5660012.99,31.740000000000002,35017,1,2
282001.96,5660012.75,31.740000000000002,34493,1,2
282001.34,5660013.3,31.76,37267,1,2
282001.96,5660013.39,31.75,42466,1,20
282002.36,5660011.03,31.720000000000002,38250,1,2
282002.36,5660009.73,31.740000000000002,43143,1,2
282002.36,5660010.03,31.73,42532,1,2
282002.71,5660009.58,31.740000000000002,40893,1,2
282003.02,5660009.6,31.73,46486,1,2
282002.71,5660009.89,31.73,42641,1,2
282003.02,5660009.94,31.740000000000002,43930,1,2
282002.36,5660010.37,31.740000000000002,37638,1,2
282002.71,5660010.19,31.78,43231,1,2
282003.02,5660010.23,31.76,45306,1,2
282002.71,5660010.5600000005,31.720000000000002,40522,1,2
282003.02,5660010.55,31.73,44410,1,2
282003.37,5660009.67,31.79,46551,1,2
282003.76,5660009.79,31.77,46813,1,2
282003.37,5660010.04,31.77,47119,1,2
282003.37,5660010.36,31.76,45852,1,2
282003.76,5660010.11,31.73,44410,1,2
282004.07,5660010.22,31.82,48124,1,20
282003.76,5660010.47,31.77,45546,1,2
282002.36,5660010.72,31.740000000000002,40238,1,2
282002.71,5660010.89,31.740000000000002,40544,1,2
282003.02,5660010.88,31.77,46180,1,2
282002.35000000003,5660011.32,31.720000000000002,39342,1,2
282002.71,5660011.19,31.740000000000002,44978,1,2
282003.02,5660011.21,31.75,45743,1,2
282002.71,5660011.53,31.77,43690,1,2
282003.02,5660011.54,31.75,47534,1,2
282003.37,5660010.7,31.73,44804,1,2
282003.37,5660011.05,31.73,44170,1,2
282004.07,5660010.55,31.830000000000002,48779,1,20
282003.76,5660010.8,31.77,47534,1,2
282004.07,5660010.9,31.77,47163,1,2
282003.37,5660011.32,31.740000000000002,44236,1,2
282003.75,5660011.1,31.8,47469,1,2
282004.07,5660011.18,31.77,47469,1,2
282003.75,5660011.4,31.79,47294,1,2
282004.06,5660011.5,31.77,45830,1,2
282004.07,5660009.6,31.79,48321,1,2
282004.07,5660009.91,31.78,47447,1,2
282004.35000000003,5660009.8100000005,31.830000000000002,48168,1,2
282004.72000000003,5660009.6,31.78,48190,1,2
282004.72000000003,5660009.9,31.8,47796,1,2
282004.35000000003,5660010.13,31.76,47796,1,2
282004.35000000003,5660010.4,31.76,47032,1,2
282004.72000000003,5660010.21,31.76,44541,1,2
282005.15,5660009.68,31.740000000000002,45677,1,2
282005.52,5660009.62,31.740000000000002,43515,1,2
282005.51,5660009.95,31.76,45852,1,2
282005.82,5660009.71,31.740000000000002,43602,1,2
282005.15,5660010.01,31.740000000000002,45044,1,2
282005.15,5660010.36,31.720000000000002,44476,1,2
282005.51,5660010.27,31.76,44935,1,2
282005.82,5660010.08,31.740000000000002,42422,1,2
282005.82,5660010.38,31.720000000000002,43449,1,2
282004.35000000003,5660010.77,31.73,46944,1,2
282004.72000000003,5660010.51,31.73,45262,1,2
282004.72000000003,5660010.85,31.75,45765,1,2
282004.35000000003,5660011.12,31.76,46879,1,2
282004.35000000003,5660011.4,31.740000000000002,47687,1,2
282004.72000000003,5660011.16,31.740000000000002,43690,1,2
282004.72000000003,5660011.47,31.76,45459,1,2
282005.15,5660010.7,31.76,45743,1,2
282005.51,5660010.59,31.76,44935,1,2
282005.51,5660010.96,31.740000000000002,43165,1,2
282005.82,5660010.72,31.720000000000002,40959,1,2
282005.15,5660011.02,31.740000000000002,45874,1,2
282005.51,5660011.24,31.740000000000002,39692,1,2
282005.15,5660011.35,31.78,46464,1,2
282005.82,5660011.0600000005,31.75,42204,1,2
282005.82,5660011.37,31.75,40500,1,2
282002.35000000003,5660011.7,31.720000000000002,36328,1,2
282002.35000000003,5660012.33,31.720000000000002,38294,1,2
282002.35000000003,5660012.01,31.740000000000002,36306,1,2
282002.71,5660011.89,31.78,46442,1,2
282003.02,5660011.87,31.75,44957,1,2
282002.71,5660012.18,31.82,49063,1,20
282003.02,5660012.2,31.76,46049,1,2
282002.71,5660012.48,31.78,48124,1,20
282003.02,5660012.54,31.76,46748,1,2
282003.37,5660011.66,31.740000000000002,44476,1,2
282003.37,5660011.99,31.75,47185,1,2
282003.75,5660011.75,31.77,48561,1,2
282003.75,5660012.02,31.78,46486,1,2
282004.06,5660011.87,31.75,44323,1,2
282003.37,5660012.28,31.79,47906,1,2
282004.06,5660012.18,31.77,46748,1,2
282003.75,5660012.36,31.75,46791,1,2
282004.06,5660012.51,31.75,44148,1,2
282002.35000000003,5660012.67,31.73,44236,1,2
282002.35000000003,5660013.03,31.75,42619,1,2
282002.7,5660012.83,31.740000000000002,44083,1,2
282003.02,5660012.86,31.740000000000002,43580,1,2
282002.35000000003,5660013.33,31.740000000000002,45524,1,2
282002.7,5660013.17,31.75,45830,1,2
282003.01,5660013.19,31.740000000000002,47840,1,2
282002.7,5660013.48,31.75,46224,1,2
282003.01,5660013.53,31.78,46813,1,2
282003.37,5660012.61,31.79,48211,1,2
282003.37,5660012.93,31.78,48211,1,2
282003.75,5660012.72,31.740000000000002,46923,1,2
282003.75,5660013.07,31.75,45612,1,2
282004.06,5660012.87,31.740000000000002,43274,1,2
282003.37,5660013.27,31.76,47556,1,2
282003.37,5660013.61,31.740000000000002,46027,1,2
282004.06,5660013.19,31.75,42750,1,2
282003.75,5660013.36,31.75,43056,1,2
282004.06,5660013.51,31.73,44236,1,2
282004.35000000003,5660011.71,31.740000000000002,44214,1,2
282004.35000000003,5660012.05,31.75,44389,1,2
282005.15,5660011.71,31.740000000000002,43777,1,2
282004.72000000003,5660011.79,31.740000000000002,45109,1,2
282004.34,5660012.38,31.73,45197,1,2
282004.72000000003,5660012.12,31.76,47010,1,2
282005.15,5660012.04,31.740000000000002,40959,1,2
282004.72000000003,5660012.4,31.76,45372,1,2
282005.15,5660012.3100000005,31.73,42226,1,2
282005.51,5660011.6,31.740000000000002,40151,1,2
282005.51,5660011.92,31.75,40238,1,2
282005.82,5660011.7,31.73,40828,1,2
282006.16000000003,5660011.51,31.740000000000002,36546,1,2
282006.16000000003,5660011.84,31.73,31107,1,2
282005.51,5660012.22,31.740000000000002,42401,1,2
282005.82,5660012.03,31.720000000000002,37049,1,2
282006.16000000003,5660012.17,31.73,32767,1,2
282005.82,5660012.35,31.740000000000002,35432,1,2
282004.34,5660012.67,31.73,44498,1,2
282004.34,5660013.02,31.76,44257,1,2
282004.72000000003,5660012.71,31.740000000000002,44083,1,2
282005.15,5660012.63,31.740000000000002,39976,1,2
282005.15,5660012.96,31.75,37114,1,2
282004.34,5660013.33,31.740000000000002,45721,1,2
282004.72000000003,5660013.08,31.75,44039,1,2
282005.15,5660013.26,31.73,38600,1,2
282004.71,5660013.41,31.740000000000002,41680,1,2
282005.51,5660012.57,31.740000000000002,36415,1,2
282005.51,5660012.93,31.73,38731,1,2
282005.81,5660012.66,31.71,32527,1,2
282006.16000000003,5660012.51,31.740000000000002,35476,1,2
282005.81,5660013.01,31.73,36000,1,2
282006.16000000003,5660012.84,31.740000000000002,31522,1,2
282005.51,5660013.24,31.740000000000002,36546,1,2
282006.16000000003,5660013.16,31.720000000000002,31631,1,2
282005.81,5660013.34,31.75,31172,1,2
282006.16000000003,5660013.5,31.75,34755,1,2
282006.18,5660000.24,31.71,36502,1,2
282005.84,5660000.07,31.720000000000002,38512,1,2
282006.95,5660000.11,31.78,45372,1,2
282007.27,5660000.17,31.77,47294,1,2
282005.84,5660000.34,31.720000000000002,37879,1,2
282005.84,5660000.67,31.73,40544,1,2
282006.18,5660000.54,31.73,43056,1,2
282006.58,5660000.33,31.76,42117,1,2
282006.58,5660000.7,31.740000000000002,43471,1,2
282006.18,5660000.88,31.73,40697,1,2
282005.84,5660000.99,31.71,41112,1,2
282006.18,5660001.17,31.73,41112,1,2
282006.58,5660000.99,31.75,45503,1,2
282006.94,5660000.46,31.78,45830,1,2
282007.27,5660000.46,31.76,46966,1,2
282007.63,5660000.18,31.78,46791,1,2
282007.63,5660000.5,31.76,44957,1,2
282006.94,5660000.78,31.79,48583,1,2
282007.27,5660000.8100000005,31.79,47250,1,2
282006.94,5660001.1,31.79,47075,1,2
282007.27,5660001.14,31.78,47032,1,2
282007.63,5660000.87,31.77,46617,1,2
282008.03,5660000.1,31.77,46202,1,2
282008.63,5660000.0600000005,31.73,45306,1,2
282009.39,5660000.03,31.740000000000002,45634,1,2
282008.03,5660000.44,31.77,46508,1,2
282008.35000000003,5660000.5,31.76,45765,1,2
282008.35000000003,5660000.17,31.77,46333,1,2
282008.63,5660000.37,31.75,46770,1,2
282008.03,5660000.74,31.78,46791,1,2
282008.35000000003,5660000.8100000005,31.77,44673,1,2
282008.02,5660001.0600000005,31.77,47906,1,2
282008.35000000003,5660001.14,31.78,46027,1,2
282008.63,5660000.74,31.77,45524,1,2
282008.63,5660001.05,31.8,46704,1,2
282008.98,5660000.18,31.75,46966,1,2
282008.98,5660000.52,31.740000000000002,45896,1,2
282009.74,5660000.23,31.75,44389,1,2
282009.39,5660000.35,31.76,47075,1,2
282009.74,5660000.5600000005,31.73,42510,1,2
282008.98,5660000.83,31.77,45721,1,2
282009.39,5660000.67,31.75,45721,1,2
282009.39,5660000.96,31.740000000000002,45634,1,2
282009.74,5660000.83,31.75,43624,1,2
282010.04,5660000.02,31.73,42073,1,2
282010.04,5660000.33,31.76,41702,1,2
282010.38,5660000.17,31.740000000000002,40653,1,2
282010.38,5660000.51,31.740000000000002,38381,1,2
282010.76,5660000.3,31.73,37114,1,2
282010.04,5660000.68,31.76,42270,1,2
282010.04,5660001.01,31.73,40369,1,2
282010.38,5660000.83,31.73,31325,1,2
282010.76,5660000.63,31.720000000000002,34143,1,2
282010.76,5660000.98,31.740000000000002,33641,1,2
282011.4,5660000.03,31.73,31347,1,2
282011.10000000003,5660000.29,31.73,30910,1,2
282011.4,5660000.35,31.71,32658,1,2
282011.73,5660000.3100000005,31.740000000000002,32658,1,2
282011.10000000003,5660000.57,31.720000000000002,34056,1,2
282011.4,5660000.71,31.740000000000002,34799,1,2
282011.10000000003,5660000.92,31.73,32352,1,2
282011.4,5660001.02,31.7,37267,1,2
282011.73,5660000.67,31.73,38490,1,2
282011.73,5660000.98,31.720000000000002,38447,1,2
282012.11,5660000.18,31.75,36612,1,2
282012.43,5660000.14,31.71,33575,1,2
282012.11,5660000.47,31.73,35803,1,2
282012.43,5660000.43,31.740000000000002,37770,1,2
282012.71,5660000.0,31.73,41024,1,2
282012.71,5660000.34,31.7,38665,1,2
282012.43,5660000.74,31.71,40085,1,2
282012.11,5660000.79,31.73,36044,1,2
282012.71,5660000.68,31.720000000000002,36677,1,2
282012.71,5660000.97,31.720000000000002,37442,1,2
282013.05,5660000.26,31.720000000000002,39473,1,2
282013.46,5660000.26,31.740000000000002,40325,1,2
282013.82,5660000.07,31.71,38796,1,2
282013.82,5660000.4,31.71,39517,1,2
282013.05,5660000.61,31.720000000000002,39168,1,2
282013.46,5660000.58,31.73,41155,1,2
282013.05,5660000.94,31.720000000000002,37333,1,2
282013.46,5660000.92,31.720000000000002,37966,1,2
282013.82,5660000.73,31.75,40784,1,2
282005.84,5660001.3100000005,31.740000000000002,42838,1,2
282006.18,5660001.45,31.79,45503,1,2
282005.84,5660001.61,31.73,40850,1,2
282006.58,5660001.27,31.78,48146,1,2
282006.58,5660001.6,31.79,46551,1,2
282006.18,5660001.79,31.84,47447,1,20
282006.18,5660002.13,31.8,46180,1,20
282006.58,5660001.91,31.76,44651,1,2
282006.58,5660002.2,31.75,45656,1,2
282006.94,5660001.44,31.78,47534,1,2
282007.27,5660001.45,31.78,45765,1,2
282007.63,5660001.2,31.75,46704,1,2
282007.63,5660001.51,31.76,47075,1,2
282006.94,5660001.78,31.78,47097,1,2
282007.27,5660001.77,31.78,47556,1,2
282006.94,5660002.1,31.8,47731,1,2
282007.26,5660002.13,31.78,47359,1,2
282007.63,5660001.83,31.76,45328,1,2
282007.63,5660002.18,31.76,45743,1,2
282006.18,5660002.45,31.740000000000002,46966,1,2
282006.18,5660002.74,31.79,46704,1,2
282006.58,5660002.55,31.78,47097,1,2
282006.18,5660003.0600000005,31.77,47294,1,2
282006.58,5660002.87,31.79,47097,1,2
282006.58,5660003.14,31.79,46748,1,2
282006.94,5660002.43,31.8,48168,1,2
282007.26,5660002.42,31.76,47447,1,2
282007.63,5660002.49,31.76,46573,1,2
282006.94,5660002.78,31.82,47709,1,2
282007.26,5660002.75,31.75,46791,1,2
282006.94,5660003.11,31.78,47600,1,2
282007.26,5660003.07,31.76,46224,1,2
282007.63,5660002.8,31.76,45437,1,2
282007.63,5660003.13,31.79,47185,1,2
282008.02,5660001.38,31.77,46748,1,2
282008.35000000003,5660001.5,31.82,48692,1,2
282008.63,5660001.38,31.77,45874,1,2
282008.02,5660001.74,31.78,47665,1,2
282008.35000000003,5660001.78,31.78,48583,1,2
282008.02,5660002.04,31.77,47862,1,2
282008.34,5660002.1,31.78,47010,1,2
282008.63,5660001.7,31.75,46791,1,2
282008.63,5660002.0600000005,31.76,46180,1,2
282008.98,5660001.14,31.75,45743,1,2
282009.39,5660001.28,31.720000000000002,43406,1,2
282008.98,5660001.44,31.77,47032,1,2
282009.74,5660001.15,31.740000000000002,42554,1,2
282009.74,5660001.48,31.75,41898,1,2
282008.98,5660001.8100000005,31.740000000000002,44192,1,2
282009.38,5660001.63,31.75,43952,1,2
282008.98,5660002.1,31.740000000000002,44214,1,2
282009.38,5660001.94,31.76,42204,1,2
282009.74,5660001.77,31.740000000000002,42444,1,2
282009.74,5660002.1,31.75,38185,1,2
282008.02,5660002.36,31.76,45830,1,2
282008.02,5660002.7,31.77,46573,1,2
282008.34,5660002.44,31.78,44935,1,2
282008.63,5660002.35,31.740000000000002,45743,1,2
282008.63,5660002.65,31.720000000000002,43427,1,2
282008.34,5660002.75,31.75,44847,1,2
282008.02,5660003.04,31.77,45240,1,2
282008.34,5660003.07,31.76,44651,1,2
282008.62,5660002.97,31.75,44935,1,2
282008.98,5660002.41,31.740000000000002,44432,1,2
282009.38,5660002.25,31.76,42379,1,2
282009.38,5660002.59,31.77,44039,1,2
282009.73,5660002.42,31.73,35519,1,2
282008.97000000003,5660002.75,31.75,44651,1,2
282009.38,5660002.87,31.740000000000002,40828,1,2
282008.97000000003,5660003.09,31.76,44913,1,2
282009.73,5660002.76,31.720000000000002,31697,1,2
282009.73,5660003.04,31.73,38294,1,2
282006.18,5660003.41,31.79,46748,1,2
282006.18,5660003.69,31.8,47796,1,2
282006.58,5660003.46,31.78,46901,1,2
282006.18,5660004.03,31.82,47753,1,2
282006.57,5660003.79,31.8,48255,1,2
282006.57,5660004.12,31.76,46726,1,2
282006.94,5660004.03,31.77,46639,1,2
282006.94,5660003.4,31.77,47228,1,2
282007.26,5660003.41,31.77,46748,1,2
282006.94,5660003.72,31.75,47054,1,2
282007.26,5660003.73,31.76,45983,1,2
282007.63,5660003.46,31.75,46923,1,2
282007.26,5660004.0600000005,31.75,47709,1,2
282007.62,5660003.79,31.77,47359,1,2
282007.62,5660004.12,31.76,46049,1,2
282006.18,5660004.36,31.8,47600,1,2
282006.17,5660004.64,31.82,45961,1,2
282006.57,5660004.45,31.76,46770,1,2
282006.94,5660004.34,31.77,46748,1,2
282006.57,5660004.76,31.79,45524,1,2
282006.94,5660004.66,31.75,45153,1,2
282006.17,5660005.0,31.78,46027,1,2
282006.93,5660005.0,31.76,47228,1,2
282006.57,5660005.1,31.75,46704,1,2
282007.26,5660004.44,31.76,45546,1,2
282007.26,5660004.74,31.77,46639,1,2
282007.62,5660004.46,31.76,45743,1,2
282007.62,5660004.75,31.73,43165,1,2
282007.26,5660005.07,31.75,45787,1,2
282007.62,5660005.1,31.75,45197,1,2
282008.02,5660003.36,31.75,46071,1,2
282008.34,5660003.39,31.740000000000002,45503,1,2
282008.02,5660003.68,31.78,45546,1,2
282008.34,5660003.71,31.75,43864,1,2
282008.62,5660003.32,31.75,45372,1,2
282008.62,5660003.63,31.740000000000002,45131,1,2
282008.02,5660004.01,31.77,46660,1,2
282008.34,5660004.0600000005,31.75,45022,1,2
282008.97000000003,5660003.76,31.73,40063,1,2
282008.62,5660003.99,31.740000000000002,44432,1,2
282008.97000000003,5660004.07,31.740000000000002,34624,1,2
282008.97000000003,5660003.4,31.76,44694,1,2
282009.38,5660003.21,31.720000000000002,36131,1,2
282009.38,5660003.54,31.720000000000002,34056,1,2
282009.73,5660003.34,31.740000000000002,34799,1,2
282009.38,5660003.89,31.720000000000002,39910,1,2
282009.38,5660004.17,31.720000000000002,35388,1,2
282009.73,5660003.69,31.720000000000002,35126,1,2
282009.73,5660004.03,31.73,32417,1,2
282008.02,5660004.35,31.75,44301,1,2
282008.34,5660004.38,31.76,44825,1,2
282008.02,5660004.66,31.77,45546,1,2
282008.34,5660004.69,31.77,40828,1,2
282008.62,5660004.32,31.73,43842,1,2
282008.97000000003,5660004.41,31.740000000000002,34209,1,2
282008.62,5660004.59,31.75,42291,1,2
282008.97000000003,5660004.71,31.7,38141,1,2
282008.02,5660004.99,31.76,43122,1,2
282008.34,5660005.05,31.76,41855,1,2
282008.62,5660004.92,31.71,34602,1,2
282008.97000000003,5660005.02,31.720000000000002,38687,1,2
282009.38,5660004.47,31.71,34078,1,2
282009.73,5660004.32,31.740000000000002,32286,1,2
282009.73,5660004.65,31.720000000000002,34864,1,2
282010.03,5660004.5600000005,31.71,36197,1,2
282009.38,5660004.82,31.71,33663,1,2
282009.38,5660005.15,31.740000000000002,34580,1,2
282010.03,5660004.88,31.73,38185,1,2
282009.73,5660004.98,31.720000000000002,34820,1,2
282010.04,5660001.32,31.73,37944,1,2
282010.38,5660001.16,31.73,37223,1,2
282010.38,5660001.48,31.73,35803,1,2
282010.75,5660001.3,31.720000000000002,34886,1,2
282010.04,5660001.7,31.740000000000002,35760,1,2
282010.38,5660001.82,31.71,32789,1,2
282010.04,5660002.03,31.740000000000002,34668,1,2
282010.75,5660001.63,31.73,34362,1,2
282010.75,5660001.94,31.75,33073,1,2
282011.10000000003,5660001.24,31.73,39714,1,2
282011.10000000003,5660001.57,31.720000000000002,36044,1,2
282011.4,5660001.35,31.73,35104,1,2
282011.73,5660001.29,31.7,38469,1,2
282011.4,5660001.69,31.75,39386,1,2
282011.10000000003,5660001.9,31.720000000000002,35104,1,2
282011.39,5660001.99,31.73,37573,1,2
282011.73,5660001.66,31.720000000000002,33248,1,2
282011.73,5660001.95,31.720000000000002,34668,1,2
282010.04,5660002.35,31.720000000000002,36109,1,2
282010.38,5660002.12,31.71,33051,1,2
282010.38,5660002.44,31.73,29752,1,2
282010.75,5660002.28,31.73,32221,1,2
282010.04,5660002.69,31.71,34689,1,2
282010.38,5660002.77,31.71,31325,1,2
282010.04,5660003.02,31.720000000000002,35257,1,2
282010.38,5660003.12,31.720000000000002,29337,1,2
282010.75,5660002.61,31.71,33444,1,2
282010.75,5660002.91,31.740000000000002,37289,1,2
282011.10000000003,5660002.21,31.740000000000002,38796,1,2
282011.39,5660002.3,31.740000000000002,33335,1,2
282011.10000000003,5660002.5600000005,31.73,38316,1,2
282011.73,5660002.23,31.73,40325,1,2
282011.73,5660002.55,31.73,39648,1,2
282011.39,5660002.64,31.71,34799,1,2
282011.09,5660002.89,31.740000000000002,39037,1,2
282011.39,5660002.96,31.720000000000002,37770,1,2
282011.73,5660002.91,31.73,38381,1,2
282012.11,5660001.12,31.71,37114,1,2
282012.43,5660001.04,31.740000000000002,37944,1,2
282012.11,5660001.47,31.73,39539,1,2
282012.43,5660001.39,31.73,35956,1,2
282012.71,5660001.26,31.740000000000002,38075,1,2
282012.11,5660001.76,31.73,41243,1,2
282012.43,5660001.75,31.71,38163,1,2
282012.43,5660002.02,31.73,39102,1,2
282012.71,5660001.59,31.73,39146,1,2
282012.71,5660001.9,31.740000000000002,41199,1,2
282013.05,5660001.26,31.73,39255,1,2
282013.46,5660001.24,31.740000000000002,41505,1,2
282013.82,5660001.08,31.73,40085,1,2
282013.82,5660001.4,31.73,41876,1,2
282013.05,5660001.62,31.740000000000002,40522,1,2
282013.46,5660001.58,31.740000000000002,40304,1,2
282013.05,5660001.95,31.720000000000002,40238,1,2
282013.46,5660001.88,31.73,40260,1,2
282013.82,5660001.72,31.7,38228,1,2
